# 3D point list with one line of data per point:
#   POINT3D_ID, X, Y, Z, R, G, B, ERROR, TRACK[] as (IMAGE_ID, POINT2D_IDX)
# Number of points: 389, mean track length: 4.0164760348583881
8752 -7.3052097302809784 1.008607077982739 5.2082824872528848 34 35 37 0.11099382934267411 104 183 94 347
12205 3.2513979063863405 2.1146336086937132 -5.2206841834695377 80 81 83 0.97726229006978893 59 315 57 66
8754 -7.6215095647046232 2.0728261602636739 1.4909194243748352 99 97 98 0.047497786190609334 94 360 117 384
11484 -4.2399690601506057 0.81262224145296813 5.2388742867353226 152 151 160 1.684686326965833 83 5304 86 555
8755 -10.828255810707157 1.6383971081016133 3.6196829315431858 228 227 223 1.1445846476811117 104 309 129 394 94 377
9634 -14.213592759207737 0.21411167632317207 4.5673290810327911 25 27 26 0.70700199148236831 102 435 97 331 105 411 98 449
8756 -7.9935166434962373 -0.45348543192883251 4.8364331746333891 178 179 174 0.82535533295878383 104 483 94 395 87 256
10151 -11.41217999672654 -1.0428937260175748 7.3749714869738812 105 104 102 0.97307206347812514 97 224 102 290 105 428 109 321
10454 -9.5975256032587613 -0.36527798166582276 11.765493248832016 86 87 85 1.5219920014609949 105 1460 110 385
8758 -7.0873361668608004 0.72647910784234115 4.0771955461596141 48 47 46 0.34146294709768404 104 293 129 280 94 429
8759 -10.88446456595476 1.9752341119537593 3.66522376815053 122 118 115 1.0072947331064941 94 435 117 245
10449 -6.8115753475221998 -0.24742230476286983 10.96161680163701 160 160 158 0.17465354685166329 109 688 108 588
11686 0.78420190507622256 2.3345802735419436 -1.6320124764591333 87 87 98 1.4517863394378108 69 395 65 347 70 786
12203 -1.1282377449733771 2.1986566150041478 -4.0769563379851892 111 115 118 0.59031000904877673 59 301 70 444 58 175 57 74 56 67
8760 -7.2870526036094816 0.93129889706769264 4.5123583165159422 197 197 192 1.9979776636507334 129 272 94 449
10458 -9.358831272179879 -0.61553623913741629 11.850578581476979 139 139 137 1.4352434623513486 105 1114 108 627
8762 -8.2081375204873552 1.7079296100907693 3.1528268300327853 159 158 156 0.95325778159692198 99 328 87 413
8763 -6.3852742861917307 1.5277181467091616 4.9894174685874653 123 119 118 1.0631922661270419 104 366 94 487 87 209
9642 -13.375879805278263 -0.16650026750967359 4.9962854161651462 39 38 43 0.80634987913644052 104 3957 97 492
8764 -6.8605852978931203 1.6269971483682522 4.8935862246559667 142 138 135 0.88988940787875626 104 378 94 497 87 418
10159 -20.700643736762462 -5.3601541452600809 14.333090472209795 221 221 210 1.0579390270031144 97 453 109 377 105 632
8766 -13.771494090759507 -0.60117511605679474 4.7077253033552795 203 193 163 0.21553326102189327 104 346 129 255 94 531
9432 -2.9060353877389602 1.5583734837686107 2.8247752664040897 142 141 138 2.0870007806441495 88 135 48 316 50 262
10153 -10.976414784375546 -1.9569006315400592 9.6715309880062623 163 165 180 0.80633528665942678 97 246 102 280 105 347 109 339 108 400 106 168
15790 -2.0564683642153825 1.1408451183639576 7.0686810958241697 123 122 118 1.3333805387469717 91 10059 101 6261 103 8089 96 7340
14553 -0.37267377730801543 -0.010244578528641194 9.6428449505183451 199 187 197 1.1769591902660708 101 3895 122 7526 96 2839 89 832 79 1588 77 907 84 1382 115 2591 82 717
8767 -7.6141602971363742 2.3246369641170554 3.6447675313459351 116 114 117 0.1452273409714985 104 305 129 368 94 537
8771 -16.522374800331296 -1.6173114640721324 5.4832998305273524 80 81 75 1.263644795066003 129 488 102 597 97 300 105 493 98 190
9714 -12.318963433878229 -1.0495300072219571 7.5748206504032449 249 249 249 0.63619674146654204 102 839 117 1391 97 659 105 834 98 712
8772 -6.9265202966758528 -0.41839480445235533 3.3385027301282011 43 42 38 0.61874391987405042 104 335 94 575
10231 -9.5973630333533837 -0.43422873894266178 10.93570515579551 83 84 86 1.4794494341162852 102 779 109 1166
8774 -7.0434279777840496 1.4574233644203582 4.6089462637142296 148 143 139 1.9420432396859331 129 436 94 637
10225 -13.158947670809528 -0.97232216737056099 6.9423226180902251 12 13 7 0.61823841452650252 102 1265 109 1121 97 1121 105 3063
8775 -7.1624095063300617 1.5398076262927682 4.7196230171449614 102 101 99 3.0172080230595486 104 204 94 641 87 390
12283 1.114360706834383 2.4811777337317733 -3.2548521312041339 0 0 0 0.48027835988189727 76 6880 65 2414
8776 -7.2291180994083577 1.4976678024631593 5.2008235903241449 154 151 145 0.41368855642795865 104 486 94 642 87 665
8779 -8.1720336677476837 0.89927690499389268 3.0687100724102105 114 113 111 1.9297095969357581 99 1376 104 600 94 716 129 1323
9722 -12.152159330546127 -0.47496543159660448 6.0721214970048196 79 78 84 0.56743151668479896 97 66 102 88 105 62
8780 -7.284191998968951 0.63545563981738984 4.3804044188744831 163 159 163 2.7784491434669909 104 1129 94 727 87 804
10239 -12.979790007222549 -1.8318233714751666 9.7742233640805001 67 66 71 0.25229067658235255 97 1137 109 1369 102 1885
8782 -6.5632013636876643 1.3744465412635281 5.0585274327571677 140 139 134 1.106209777421223 104 665 94 760 87 683
10233 -18.020066283515384 -3.408294642596704 11.929985944337806 151 143 132 0.64756633596089219 102 689 109 1221 97 348 98 483
12237 -0.57395209000995362 3.3662137879897482 -4.2154381202231264 190 192 189 0.98577215891779624 59 357 70 654 58 266
8786 -6.0391243800669265 -0.023538155645303416 4.158870099299385 53 50 59 1.0151820239116367 104 895 94 830 87 772
9507 -9.5964862658350363 -1.7725465536300653 9.0862763178536206 43 44 46 2.3036912841701986 102 417 105 569 109 460 108 393 106 126 110 183
8787 -11.920910578023166 -0.88671839989451062 5.7548485725555869 38 38 38 0.72302898276691585 129 1179 117 690 102 826 97 639 98 693
8790 -7.725778291538262 2.7716296470013102 1.9060298424927646 189 185 182 0.85765894002335452 88 6242 129 1531 94 925 92 7833
11559 -4.0204339463084109 3.6202322405163567 -2.3189521312061947 184 164 111 0.8347386039527297 64 547 71 584 66 505
8791 -8.16328444968069 2.9955636593908976 1.6161136253759518 164 163 162 0.8923844687828546 104 1111 94 932 129 1517
10020 -7.6556464589302582 0.56113613540248541 3.0328848596292621 31 29 33 1.9665678769677233 85 230 50 419 74 299 91 158 80 137 81 198 83 212 72 236 129 114 104 115 94 147 117 67 48 356
11718 0.21485208375550149 2.3169280299124422 -2.3400676292759321 191 186 167 1.8776464266964534 69 868 65 637 76 723
16341 -1.3680523360224288 0.99085416956285743 8.0186028265469176 161 159 162 0.73736889109837589 96 5426 100 1522 101 4459 115 988
8794 -6.3855237562328124 1.4007892748021149 5.0437790773185585 92 89 93 1.1265243755270142 104 1236 94 975 87 849
9515 -11.453031030689436 -0.74011386296418991 7.2747615314574121 31 31 34 2.1772078775452832 117 451 102 506 97 414
12072 0.36277263053982062 2.8947228931562381 -3.30174617550581 0 0 0 1.8019060844030099 65 2037 69 1658
8795 -8.3165640433327468 2.3414110987019017 3.0433894818391725 112 108 107 1.7830706669795413 88 3420 99 866 94 986
8798 -7.6549232383784078 0.73673329764354212 4.7151498942540586 75 79 80 2.1831996301056398 104 744 129 569 94 1031 87 809
10185 -9.7943929081172918 -0.58313910211364828 11.063958756718501 144 144 146 0.69062417727417313 102 547 105 707 109 726 108 628 110 676
8800 -8.2394067681689265 0.70285178321222741 5.0753750714063521 161 157 158 2.862128100871479 104 1310 87 1077
12189 -0.16946511285474772 3.8089200924116149 -4.882523246008641 218 220 215 0.67432730075962777 59 238 65 234 70 412 58 125
8802 -7.8686885999809881 2.4871073762849285 2.6773404484325924 166 163 164 1.006266737425946 104 1097 129 1217 94 1141
8806 -7.4719161328243331 0.84632292758041128 3.7711776253406084 108 109 111 0.86105774152521453 94 1203 117 7251
10129 -14.985000529893803 -0.46234586382723164 9.6317004517464895 165 165 165 0.24008155806434814 102 224 105 307 109 169
8807 -11.062688438014934 2.071438014734539 3.5967847514808748 123 119 120 0.5367761206480357 104 852 129 725 94 1208 117 546
11670 0.71415714799107299 2.4183670346316153 -1.8050570045182397 207 208 203 0.1647445091946351 69 258 65 247
12187 -0.98343789338615339 2.9249082558455495 -3.9071587059373272 184 184 182 0.44093913247517963 59 228 70 336 58 119
8808 -8.5432090283272117 1.9174798240792352 3.8012348982829844 99 97 98 0.74344563612470616 104 1521 129 1423 94 1224
8810 -6.4390886843844548 1.3801013494053485 5.0332890211838066 128 124 121 1.2304026347781798 104 1235 94 1249 87 1271
8811 -6.4364712934444297 1.4279931211064116 5.053257610248215 86 85 81 1.5655775916570149 104 1655 87 882
9626 -14.30466677570257 0.6930247409640965 4.5945261460033509 198 197 193 0.8256967742676119 102 252 97 239 98 256
8812 -8.5824324288273139 2.7569742671685087 2.3145589073916888 142 139 139 0.58940283195656018 104 1057 129 1465 94 1259
10143 -20.653659959269923 -4.5018785195353388 15.41780396958119 86 79 60 1.5923485850413013 97 120 98 120 102 207 105 237 109 245
8814 -6.7076142490845259 0.74084627007021264 1.7266842048710731 70 71 66 1.62753265402602 104 2173 94 1361
10137 -9.6389541223519952 -0.097844451388289594 10.248831027056342 26 26 26 0.6966139642908743 105 189 109 193 108 152
8815 -7.7351553334280458 2.5607006235543737 2.2714265492746359 0 0 0 1.25275441612579 99 457 104 2566 129 1513
16355 1.4609832739035373 1.128476145976943 7.4488780429605583 49 47 50 1.3314792578092536 101 6211 100 1662 96 7371
8816 -6.7861083834511664 1.9102999698799117 4.0019077110136214 158 154 153 0.90635877321164082 104 1636 94 1438 87 913
12269 -3.0023343434570453 2.6731500317242318 -4.4505882805479482 178 176 177 2.1113657007094977 59 1134 70 2278 58 448 57 310
8818 -8.7381321548801765 2.6047410932702983 2.2300333479058589 62 63 67 1.1890574210716942 104 1555 129 9129 94 1520
8819 -8.6204425066415684 2.3707763917550544 2.7251607624992151 114 113 111 0.86185253579463728 104 1545 129 1433 94 1533
9698 -7.3237470651382424 -0.45457915532886134 3.4352487701825298 94 92 95 0.063490089291987517 102 1517 105 1178
8820 -9.910848994092067 2.1780909726579947 2.7711749129679588 82 82 82 0.98431724479452198 104 3113 94 1568 129 7998
10215 -11.639761203638287 -1.6824610007481708 8.7312427714426217 84 84 92 1.5703517455822655 97 883 98 690 102 815 109 1031 105 1031
8822 -9.594011154279908 1.6269019839002929 4.1320338379392707 141 140 138 0.54261883536130995 104 2149 94 1574 87 1091
8823 -10.509794907657918 1.9394747454315013 3.570032122792373 113 112 108 1.7461847424321406 104 1587 94 1576 117 638 99 1594 129 1203
11750 -0.41897419112132894 2.2203120353759687 -2.6409249550042495 84 83 81 1.4653866110749374 69 1222 65 1989 76 2330 70 1022
12267 -0.95220716179709364 3.0697250915494156 -3.8003502879386728 104 105 107 0.45835573694158693 59 858 70 1717 58 409
8824 -10.804737149320081 2.1083552790181344 3.6418950838369262 163 160 155 1.128618649791215 94 1616 117 1878
16373 0.59265212616001173 0.6360129662459173 8.7622528971989553 8 5 12 0.44855136417144964 101 2702 100 1762 96 2982 115 1652 89 950 79 1304
8826 -7.6024864470627893 1.970140832917858 4.2214377871524071 156 155 153 1.0484893104733981 104 2581 94 1640 129 4200
8827 -16.005208097297647 -1.6268217335944124 5.2069949629641359 59 60 54 1.2814266298306203 99 1037 97 463 105 338
9706 -14.949879829024317 -2.2157718406898796 3.8532592549479743 10 9 8 1.9926291915518246 102 1347 129 5083 97 1006 104 1379 117 1303 98 1274 98 1790 97 793 129 6876
8828 -15.190125510798511 -1.1568989597109656 5.3183996407571783 83 83 81 1.162883077798929 129 1241 94 1671 117 707 105 886
10223 -11.785347343510232 -0.78236363220857041 5.7804466795011233 65 64 62 0.29860952215998365 102 1421 109 1094
15854 -1.0231981655147899 2.2638258511344813 4.3175545798640833 191 188 184 2.4807242625355057 91 12019 101 5464 95 4974 96 4317 91 5002 101 5462 95 3641
8831 -6.3796698451464877 -0.33006224955908081 4.4210976439903202 89 89 86 1.0609231936721404 104 1410 94 1752 87 1445
8833 -10.517362429298945 1.8686784649572297 3.4266810516655806 151 147 144 0.84509045123399984 104 3328 94 1843 129 3254
10006 -11.725547135125204 1.9653669542231302 3.9535549984197269 188 187 183 1.1467390006280309 85 1267 50 857 72 775
8834 -10.845842913344004 2.0877627863528101 3.5516411535739616 135 134 129 0.3189686122672834 129 3301 94 1847 117 1897
9491 -15.850845314022012 -1.5022460486866083 5.3438259868947151 222 219 214 1.3432725579766043 87 398 99 495 102 265 105 333
16144 0.026732139491741518 -0.52582561580700815 9.065132375269549 209 198 196 1.0049867971274493 101 994 100 504 115 290 89 247 79 414 77 396 84 326 82 311
8835 -8.9556312957203019 1.4114357995128011 4.4373366292975236 193 190 181 1.0635092689722374 104 2014 94 1850
8838 -8.2060082365874933 1.9135783166286584 3.406096631709453 111 110 110 1.6750873229016701 104 2006 94 1893 87 1757
11543 -10.582685982038317 -1.4933910555495711 10.781037065971246 21 21 21 1.7482818975929282 83 85 86 60 103 80
8839 -8.4114872887051604 2.1460955152007264 3.7214368409633436 148 147 150 0.33508391839225621 104 3673 94 1925 87 890
10004 -2.9007216160463294 1.4170310762559675 2.6671055651737303 53 53 53 0.92357414086935419 48 776 85 299 50 667
8841 -7.3784907004880935 2.0824409105832578 3.9855821767530708 106 104 105 2.216450241623567 104 1702 94 2046 129 2423 87 1326
8842 -7.8112259213442004 0.7023483319950341 4.7971564403370106 33 34 38 1.2582367078408836 104 3345 94 2170 87 2494
9499 -9.7059967130140343 -0.78396221170788805 9.5398277145520893 153 165 163 0.69896588971470297 94 593 102 307 105 612 109 606 108 361 110 207
12056 0.10985104616549178 2.5178684564949156 -2.2472567481399848 85 88 73 0.33308505181820625 76 3224 70 1882
8843 -11.004019687737577 1.7615263868443745 3.8672613660619368 72 71 71 2.1480107140960873 104 2210 129 7475 94 2172
15647 -1.1728068626060446 0.79458243277801532 8.6483032037829801 148 144 141 0.55696542082552314 91 9976 101 9984 96 5298 100 1726 89 1432
8846 -10.856180286911439 1.7245246840603907 2.9089372745785353 103 102 85 0.4028207639155163 104 4086 94 2234
8849 -10.820547383491451 1.9930989126740037 3.9234397402642256 117 116 114 0.90718481827887232 104 5027 129 7797 94 2303
10086 -4.7193792843323479 3.447843575528585 -0.99428592769294111 202 201 196 0.69066177622777836 85 9129 71 1865 66 1737
8850 -14.036767122918361 -0.20532062594483289 5.3754225631712513 140 141 136 1.0111968944111365 129 5232 94 2361 117 5574 102 2119
8851 -11.808808676673198 1.8009022904861827 4.0769150583433076 137 136 132 0.8162402839764944 99 2039 104 3284 94 2428 90 815
16154 -0.57132342163227834 -0.82546168457110947 9.5783132325587896 135 145 181 0.84409778000684665 96 819 101 1005 100 558 115 431 89 412 78 1198 75 1007 79 789 77 796 84 330 82 319
8853 -8.7858899226475025 1.8938706438333388 3.9776253866551201 130 130 128 2.060192353204914 104 2047 129 6186 94 2483 117 3348
8854 -8.2078570972589802 1.8871206692548053 3.5729282926471244 119 117 118 1.1022244703202355 104 3574 94 2505 87 1749
11623 -12.757676015789789 -2.0802845277293005 8.0355611376929215 60 60 70 1.0708393128380242 107 47 118 51
8855 -9.1542772306533777 2.1382406502332096 4.2773515607507386 100 99 97 0.969021524431116 104 3588 94 2506 87 1740
10084 -4.3718858586092111 2.8223168271018197 -0.86105868063789326 138 135 130 1.9244020532528179 68 1463 80 2271 85 4749 71 1802 66 616
8857 -8.2084556740067356 2.4856383562810547 1.3664556994742452 152 146 148 0.45815979403368917 104 3585 94 2585 129 6235
8858 -9.1831063904857864 2.5984036290543973 4.4190666861647454 157 155 156 2.0238336092285207 129 3955 94 2627
9579 -14.714318640939618 -0.85879528523522597 5.1610034113987817 84 76 73 1.1221749421902631 117 5472 102 1858 98 1137
12136 -0.95737180839280911 3.2882767498762662 -4.0681540626091133 79 79 79 1.2554879573078004 76 3272 59 1093 58 466
8859 -7.629902454445272 1.8767933909583947 5.4503690917239025 140 136 133 1.1380436689276767 104 4813 94 2650 87 2205
12130 0.044460972669096883 2.3311380961336314 -2.5507917606545845 144 142 138 0.24241378021537485 70 1005 59 761 58 369
8861 -7.6288143793251137 2.5607607864632791 0.95025356684735196 138 130 119 0.072576128675146401 104 3718 94 2704
8862 -7.8862306929676977 2.6306234610280219 1.7273592888483018 92 81 75 1.9278095238741415 104 1805 94 2733
8863 -7.321188021266579 2.3835249412731323 3.0469158305432678 124 122 124 0.83140902399098204 129 11029 94 2790 122 3827
10092 -0.87036057587079463 0.63840939589473666 -0.23584402632618059 138 135 134 0.72803678673734029 64 1170 71 2492
12253 0.025986572444678221 4.2815964095364096 -7.8479449678556499 213 212 207 0.90217108860808359 59 484 70 629 58 340 57 149
8866 -8.231096485745331 2.4490090909977238 2.4649776842296469 144 139 142 0.47960121798612576 104 5577 94 2903 129 9452
9523 -14.119005239869855 -0.73254219669050591 5.5848258532218029 74 54 17 1.8635711755233648 117 929 102 732 97 519 105 769 98 681 90 525
16176 0.67341154176059026 0.36266854951024396 8.8853457793985751 46 42 40 1.4171747692317247 96 1436 101 1233 100 701 89 555 84 675
8867 -6.9358259024080962 1.990503731637858 4.4565427907068296 138 138 138 0.5599052467549267 104 3000 94 2951 87 2783
9682 -13.63569080836602 -0.45356483099298522 3.2149190733145443 166 166 166 0.72621615981352294 102 1592 97 1163 98 1359
8870 -15.20951995443192 -2.1928255902969571 5.4576646626571392 47 47 45 0.79445345056999794 104 3857 129 6888 94 3254 87 2424
10193 -17.690422554447466 -2.978575533210563 11.047568080857438 33 33 36 1.1254179606263439 97 768 98 492 102 976 109 823
11575 -3.8018637646301592 2.7944178695461548 -3.9830473346097062 218 216 217 1.7978586902877469 64 98 61 72 71 113
8871 -18.816661920838474 -2.1994070043875014 7.9731307406063898 94 92 93 1.2881568607528091 104 3880 117 1314 50 4763 129 6927 54 267 51 336 49 412
10036 -3.2610117801930212 3.2835412541700806 -3.1489757197247794 48 47 53 1.0801728983854932 64 42 71 74 66 63 61 46 63 40 67 56
11734 0.45278775380952152 4.3495323813000102 -2.0286075870168605 57 55 56 1.7626501925063252 69 929 65 969 76 2115
8874 -13.856466562580534 -0.2337479350731286 5.0938833892716922 31 32 28 1.279118426692931 117 2455 104 3953 97 944
9531 -14.103452421067667 -0.96542707864954969 5.9570198404590871 98 96 100 1.0306795638139368 117 4444 102 812 97 868
12088 0.074560080238113058 6.1935467849242158 -6.4309410499171467 86 86 88 2.4536933279683968 65 816 70 1538
8875 -8.1775477068672533 -0.45561930549672036 4.9888366597955454 191 191 185 0.86109692960037254 104 3991 94 3463 87 1571
9690 -13.342531868691561 -0.58755184283405182 3.2974282326860465 98 98 96 0.13680048101328107 102 1688 97 1378
15679 -2.471803145483642 1.5680449395825271 6.2611586342658763 151 147 144 2.6546437427362957 83 2384 91 10419 103 2465 96 5807
8878 -9.6494244560411495 1.0685965459843494 2.3846001018854928 166 165 163 0.34122401935927937 129 7138 94 3537
10201 -10.18479719694535 -1.5920005815078229 8.8789553209462113 100 101 103 1.7122372108653057 97 665 102 1056 109 909 108 1230
8879 -7.898049072545076 0.63865173764753769 3.0943776471570024 176 174 177 1.3559568221534322 104 4043 94 3563 87 1201
10044 -3.7498825900518069 3.5828210065096369 -1.7403073105323239 136 135 140 2.3331288939089228 64 84 71 135 66 116
8882 -11.287675064747962 1.927044242102038 3.9370101410688574 132 131 129 0.59399959585100703 104 3321 94 3685 117 2709 129 7593
16186 -7.1000125661238043 -3.9008479686135908 15.454722420261808 179 177 178 0.34220158041607818 101 1098 100 740 96 1268 103 2824 79 849
8885 -7.4953858174582964 1.4649968943930218 5.4253200922678655 90 86 85 0.02677701933361868 104 3785 94 3813
8886 -8.4562046842307801 2.299834662262811 3.6778811769471367 91 90 95 0.0080582142900386608 104 5505 94 3913
11527 -0.22198170297270692 -0.73741072884692038 9.4450832438561179 150 157 165 1.3477203646011429 101 8488 86 1475 96 6057 75 2243
8887 -7.8771567710365265 2.2671789347069691 3.3149824389401799 118 114 115 0.84132293128305313 104 3829 94 4002 87 2788
9988 -15.018933924319731 -1.7902886560321427 4.1036503550316716 51 51 51 0.38764579609006633 94 1150 90 960
8889 -7.4085707631837963 2.2041493615036489 4.0297046522777666 99 99 101 0.70434571572265792 104 2874 129 11188 94 4169
12040 0.27456271128376741 2.2734271916942399 -1.8816818347897781 35 34 39 0.79572898480545773 65 852 76 3223 70 1511
8891 -7.4580884337847602 2.4880755537054386 2.6026514929174152 178 174 171 0.7457145803331201 104 4826 94 4274 129 10773
12034 0.14318082533684073 2.2903458703254134 -2.4067805639899365 152 152 151 0.33650393314257571 76 2483 70 1479
8893 -8.2498967271095207 2.63348425165018 2.2983831361397793 135 133 130 1.1596370082853715 85 4486 88 7202 94 961 129 1477 99 840 104 790
8895 -8.5944947493955635 2.5366377090576195 2.3535581932783587 64 62 64 1.8420892863571621 129 1440 94 1238 85 2861 92 2604 104 1368
8898 -18.926272902807451 -2.546508354892929 8.4176741855791821 221 218 209 0.66135215110345225 129 54 94 65 87 47
9555 -10.835267502829335 -1.3960210821468959 7.7563316369774284 155 157 156 0.87732566688497893 94 2330 102 1266 97 1115 109 2015
16208 0.074655573753703144 0.2441395591897913 9.1975119088791448 66 70 81 1.2501883726858138 96 2332 101 1925 100 933 115 735 89 870 77 1047 79 2033 84 659 82 681
8899 -7.8184801570474161 2.3085986510492891 3.0420408458207855 100 99 104 0.3762289164534291 104 231 129 159 94 188
8902 -11.278511706412942 1.8352780985322175 3.791453056524015 146 145 142 1.2689439173966903 104 869 94 1035 117 618 99 1479 129 3185
10276 -10.877505164143187 -1.1584118118707751 7.9110210659765992 118 117 115 0.53220157897037479 97 1232 109 2040 102 1435
11607 -3.3909226656849931 2.9781902647446907 -4.2094698674948177 141 155 111 1.3371051600448804 71 2845 61 312 63 654 67 1593
8903 -8.2412527745559476 1.4616855316954618 3.1210419975160164 184 183 181 0.050721176511073038 99 1021 94 1572
9253 -10.468808601628258 1.8932546470365572 3.6686175450417786 70 69 67 0.72283659214043583 104 4271 129 7744 117 6433
10068 -5.0805652033272715 2.7787684735289648 -0.88149497852996761 252 252 244 0.20741151579191555 85 4076 71 750 67 393
8905 -10.718804888124478 1.8768534212121382 3.7788880150733846 129 128 125 1.3112329946428514 104 4233 94 2276 117 1929
10078 -4.7803568459291759 3.9377142612872427 -1.4011157409109183 123 123 125 1.3294540893368743 68 1376 85 5196 71 1320
8906 -6.0775136563509173 1.49138507082257 4.8619207676459002 14 13 18 0.98089888831460081 104 3071 94 4176
10280 -14.241687864049863 -1.0601564073070231 12.66766519857331 149 150 147 1.2154564169226316 97 1244 109 2064
12120 -0.55154310915250448 3.0053847100387401 -3.3868711334522899 182 189 137 0.71859268718533309 65 858 70 725 76 1609 59 514 58 231
8907 -17.888358041522373 -2.6596471930922183 7.250673019015335 214 213 209 0.49268981211315904 129 8 117 9
12114 0.41814859503314811 2.9410151459278784 -3.2515188532540358 185 172 124 0.76536550768455491 70 670 76 490 59 369 58 185
8909 -16.123019270846125 -2.1381173066653516 4.5691996788555889 4 4 6 1.4959601609819702 99 32 129 31 117 27 97 21 98 36 90 32
10275 -10.105124167653369 -1.5110706076773379 8.5236960255732139 174 176 176 1.0630136547029714 97 1093 102 1249 109 2022 108 1992
15711 -0.48046318415592681 -0.39428637328867644 9.6490114622550731 53 64 81 2.4095553084930454 86 1838 101 8677 96 6177 100 3642 82 2804 115 6861
14380 -1.5228515156684725 -0.75236930557819937 9.249451151315391 59 53 47 0.60638558328574232 91 7535 101 3652 122 5129 96 8715 100 2161 115 1059 79 2089 84 902 82 863
8910 -8.4979124181274823 2.1905102416461664 2.1636422993134641 232 231 226 0.43711537385020166 99 20 117 28 129 44
8911 -9.4730124365687054 2.2927497479096401 2.7583806231446149 84 83 89 2.6240611523623776 99 33 117 29
9261 -15.216883524956799 -0.71784964714999355 4.6830179116711994 104 102 99 0.79315229387141806 104 929 99 1047 94 1159 48 1777 102 614 97 377 105 556 98 419 117 430 90 362 50 2179 54 285 51 417 49 430
8913 -8.8982760649741053 1.1820516177487619 2.2284182708181768 6 5 7 0.08287442916298457 104 61 117 50
10150 -9.6393574329751868 -0.2502694235285356 10.11062330303171 227 227 225 1.2432551470308559 105 275 109 320 102 330 108 197
10295 -11.058916367454659 -0.77321780267100848 8.1732181999346203 73 72 77 0.4295273339457979 102 2063 109 2520 108 1611
14384 -0.85367241783366754 -0.90090534989921933 9.2637898976329911 60 51 40 0.90285911237031902 91 7553 101 3758 122 5160 84 1168 89 2120 82 1356
8914 -7.8634855069962208 0.70187463722593169 3.0365704317134554 238 237 235 0.33686123127107837 129 84 117 51
9635 -15.576106121025587 -1.2826062630156636 5.1659078026186434 212 213 205 1.1786101411979459 102 401 97 360 98 366
8915 -11.764642904106887 3.4907718630595195 -0.80263147299762594 111 108 101 1.4766298320107603 99 150 104 176 117 76 129 143
16218 0.83730812120157527 -0.019025109146137972 8.3575012474703172 195 191 188 0.99516919076184918 96 1231 101 1185 100 958 115 841 89 450 79 1143 84 404 82 389
14379 -11.313765142434399 1.1156238869915782 6.1132962872741805 193 188 182 1.2303086799428671 91 9044 95 3436 122 5126 88 3810 92 7596
8917 -12.331092181788495 2.2098973005161575 -0.92249876095429584 87 63 25 2.0705825786837857 99 65 129 67 117 86
8918 -11.030385947636878 1.7276129806150315 -0.91812898715440938 158 145 120 1.3746477099850423 99 100 104 161 129 137 117 88
10292 -9.3302546131575212 -0.59754108123185867 11.307075691314182 154 153 151 1.8448191649382988 102 1950 109 2449 108 2280
11687 0.66367591421915917 2.6995422977461665 -2.4305876470752654 199 102 88 1.5292460157958008 69 264 65 355 76 504
8921 -10.291585070261538 2.2546981822920191 3.1047673187574185 156 155 153 1.5060844068098662 129 81 117 115 104 64
8922 -7.2592502817365361 0.24720463450095187 0.15345265000416478 185 189 200 0.94901673434890255 129 177 117 123 98 73
9643 -12.30319118778184 -0.39674231921118386 5.2085217716757191 58 60 59 0.68982495657339149 97 495 105 589 98 869
10296 -11.833405763889104 -0.84688057881323942 7.6362337959937125 169 168 165 1.1340543136935843 102 1931 109 2534 97 935 98 757
12200 -1.3892157280704731 3.7232474929294543 -6.5728186820835832 221 221 219 1.3785180768026277 59 305 70 395 58 170
8923 -13.725512316106977 2.6568333804316655 -0.87525204241210064 117 113 104 1.4387485073475264 104 244 129 313 117 130
11321 -7.7739087443317878 -0.77387040715890576 12.484192350717644 153 151 152 0.85762974743551745 114 880 128 2809
12194 0.39658627690940612 5.3535902751234392 -6.6807279429425739 56 57 58 1.6659187601699614 59 253 70 744 58 144
8925 -11.914562591611473 3.3662034173361977 -0.59641074625274015 123 120 113 1.0596263214243413 99 229 104 259 129 206 117 137
10291 -10.818557520781107 -1.9036516698182369 9.2927764285643608 76 75 87 1.3153448778225014 102 1709 109 2287 97 635
8926 -15.573143454408468 -1.227293029768477 5.2105579731006015 224 221 216 1.9849423977224505 104 354 129 341 117 156 105 116 98 136 97 101
8927 -6.9329193485631491 0.31178008841912186 -0.07520636712379887 185 183 194 0.30507727469769369 104 351 129 340 117 165
9277 -18.922169530863592 -3.0383954267707796 9.2088761502297469 96 98 119 2.5033982051733932 129 5100 117 4364
10156 -12.050746471767406 -1.856971929514853 8.97553863807906 8 7 15 0.87054192483809667 97 212 98 238 102 273 105 323 109 343 108 320
8929 -13.646528172331443 2.9675808123764442 -1.3705230725253548 51 52 48 0.38919215022500997 104 318 129 310 117 185
8930 -21.33631499671759 -3.2284551110993527 6.9826305178294232 92 89 84 2.3695198589605715 99 125 104 212 129 172 117 186 102 182 50 300 48 402 51 122 49 104
9587 -11.693739299389755 -0.86576953105307841 5.6844100680372245 162 163 161 2.1025455384241472 117 5517 97 1425 98 1403
16240 -0.40181146620218905 -0.88295728441275967 9.5444395063061105 202 196 203 0.39824822604148974 96 2703 101 2350 100 1030 115 620 89 687
8931 -11.660936758988278 3.3132304378386381 -0.41805332374647819 93 91 92 1.4568650945201085 129 292 117 205
8933 -12.425582197136766 3.3813255292332136 -0.87011454594760129 107 106 102 1.589671710476515 99 225 104 308 117 216 129 297
8934 -12.96772616116883 3.3385226458594359 -0.64271500120729863 70 68 68 0.49850756932893675 104 311 129 300 117 220
11639 -10.366355734445239 -2.2221088274145382 9.4377430391821466 72 71 76 1.5777868088239249 106 1021 107 871 118 1099
8935 -13.298969779113985 3.3115809361504431 -0.58565493111116684 113 112 110 1.4730810852394092 104 312 129 304 117 224
10100 -4.9246418090497421 2.8453536358232796 -1.029518264437201 112 109 103 1.3215118548389446 80 4583 71 3007 61 319 63 605
8937 -15.006328422907456 -0.84522432573172257 5.503621710408293 34 34 36 1.5605453175098738 99 200 129 180 117 229 102 211 98 275 90 231
10110 -3.5989671911285561 2.7576664485695832 -1.1679018469962763 16 17 22 2.7869639540279625 68 2840 71 3073
8938 -12.002806477679046 3.3548653248916906 -0.48975851784611812 112 109 102 0.9409376953196783 99 403 104 536 129 542 117 243
12152 3.6798572360948638 1.8618120869778962 -4.2254170641196431 211 211 209 0.77458981902092261 59 16 58 12
8939 -7.9547327943209361 0.91859070385123287 2.1547741560208875 81 79 82 1.0105315435828166 104 596 117 253
12146 1.2593833633726965 2.663986335524525 -2.4249063324350857 180 182 169 2.9346318880601197 65 135 76 259 59 211
8941 -14.130708943714877 2.8978782659718867 -1.5594210480930626 8 9 4 2.3122788971275012 99 215 104 243 129 424 117 263 90 169
8942 -13.866011080056403 2.7758254976094601 -1.2433680236789502 91 67 29 2.3845041473271138 99 359 104 591 129 531 117 264
8943 -13.565641997561656 0.40440634436081641 5.4422458892470544 221 223 222 0.698491785298894 99 365 129 319 117 269 102 232 105 171 98 257
10108 -3.8726320830947905 3.3478053969985302 -2.2171636400183568 211 188 121 0.09328707557694467 64 279 61 155
8945 -8.3646890527966828 -0.3111798901138047 3.2357122168735244 153 152 150 0.76107523451839454 99 374 117 278 102 162 105 141 90 180
10054 -3.2765180235063069 3.7109235323175436 -3.0666680771212254 8 8 8 1.4720060950511087 71 349 66 509 61 156 63 191 67 382
8946 -6.9670743371287562 0.38617834597466982 0.0052634985172271926 227 230 237 0.73937471882714367 104 508 129 656 117 279
9539 -14.288867319067723 0.02038907368082479 4.402438328843596 8 7 5 1.8818202368219823 99 1420 102 859 129 3012 97 669 98 659
16250 0.21546280592912437 -0.56097243573685129 8.9847837659205183 40 33 17 0.60249092323465647 101 2034 100 1104 96 2748 115 1073 89 1316
8949 -8.0965107916120491 0.609670397910553 3.1120276310601271 235 235 237 1.0131694069395287 99 555 117 335 90 201
8950 -8.2020007867085774 0.84816600400854003 2.3153233774562287 176 172 171 1.4765950155284748 99 386 117 336 90 199
8951 -11.858959116323422 3.6427320040157571 -1.032495384956043 80 80 78 0.37318240214379422 104 541 117 349
10052 -3.4031293129428359 2.8077692368679723 -3.8666279639830061 226 226 225 1.0071003785645631 64 162 71 274 66 238 63 161 67 157
8953 -13.723420462594184 -0.018734959880007951 5.439817666337869 104 105 100 0.96281348509250353 99 544 129 517 117 356
10062 -4.6049049499258103 3.1708776718290945 -0.86003247897495771 196 196 196 0.39347025669461799 80 898 71 558 66 448
9547 -10.203193163722876 -1.4891907077282427 8.8233555069076601 49 49 49 0.34386488890336686 94 947 102 1063 97 579 109 1051
12104 -0.79946636327980403 3.0977704137802125 -3.4704661481345318 214 213 209 1.0855661881695158 70 411 76 240 59 294 58 149
8955 -9.1793391496385066 1.9309103464255919 4.1328898243834029 133 131 134 0.78624957614172608 129 679 117 371 122 7680
12098 0.5071148645128285 2.7851414674734132 -3.1708271627367441 179 96 90 1.7460729240230335 65 279 70 409 76 369 59 191 58 106
8957 -8.5265749501847896 1.9499349230621361 3.7425353314727476 108 106 107 1.6032378286109339 94 1551 117 375 87 1268
9394 -4.7789791892420359 -0.43776712621950942 4.4420954614431079 173 174 169 0.91818248724549223 103 10370 87 2410
8964 -7.4343440862570889 0.00618429122462832 0.22877677872197202 195 170 86 0.97007768115066351 129 487 117 424 98 179 90 229
9911 -12.106597555393897 -0.96910002330742318 7.3648729969466098 230 229 227 0.0066909309710103749 94 2319 98 1425
8966 -14.01940106841465 -0.55127131627138637 5.4770964808973988 144 130 81 1.7413389265504597 129 1268 117 440 97 640 102 1261
9905 -14.863246570102598 -0.76725612877078953 4.9880017647062198 194 152 156 0.2147899972736278 129 5175 98 1133
8967 -8.2134400544808006 -0.33216096487230651 3.2722835394403251 163 161 162 1.0145349590047326 129 802 117 447 102 441 97 342
11446 -0.037308506285701717 -1.8725272473937202 9.2805972356669795 149 148 144 0.32302450524387061 101 471 96 471 115 142 100 330 89 238 79 472 77 361 84 135 82 129
11963 0.66073353338159757 2.731996415916977 -2.8127948564449801 201 203 202 1.491159124977318 76 365 70 400 65 283 59 372
8968 -7.9331264106258006 -0.15089273254527663 3.3841524839369543 43 41 42 1.4760817293655153 129 3042 117 454
8971 -7.0614772194302038 1.0078792367798057 0.0940292986796437 205 181 89 1.2986867862273994 99 358 104 320 117 474 129 316
9402 -10.99929203529172 -2.8119208953677015 9.980898014511606 5 5 6 0.2747272441667058 94 1670 87 2820
8972 -8.0463616417262962 0.65211258674445738 3.0576797010523817 187 186 194 0.45019816780214877 129 778 117 479 90 251
8974 -9.7018930011664075 3.465461738887722 -0.50680197226303914 74 72 72 0.85960655724573309 104 820 117 499 129 1031
9913 -12.94575554803113 -1.0346608380484519 6.7305356953353161 8 4 5 1.9547344890222849 102 2201 98 1649 97 1641
8976 -9.9480359048032305 3.319765542191794 -0.058652498994597811 66 65 67 1.7859383261035251 104 828 129 1042 117 503
8977 -6.3841706537661036 1.5056613914438082 -0.57497218072120626 88 88 88 1.8806449157549503 99 3163 117 525
11917 1.1101325231116357 2.4456295613574244 -1.8586563104224907 245 250 213 2.6002675644294024 65 354 76 531 70 788 59 391
8978 -11.215948110030693 3.492016779593206 -0.78722468444611249 82 78 75 1.4978290157089607 104 743 117 526 129 1202
8980 -13.337026806569954 -1.0365697219310606 7.0604500947377602 23 23 25 1.0946256511704557 94 685 104 755 87 560 102 282 97 217
9863 -17.037181177819644 -1.9430652442692291 9.0830194395519452 39 38 44 1.2539232609224218 97 371 102 609 105 791 98 512 90 280
8981 -10.957866068126805 2.0457523755262557 3.7152745304221853 129 128 127 0.77762921118406148 99 1095 129 1355 117 585
8982 -10.910784072335616 2.1462659507933282 3.2622435460020465 123 119 118 1.5899910503241188 99 1591 129 1351 117 586 104 2178
9857 -12.811142512382155 -2.2344316151174195 7.917737260018975 168 171 178 0.46563891340239244 97 358 102 600 105 535 98 451 90 366
8983 -12.167885585883102 3.3703724721819008 -0.64501353374048653 108 107 103 0.37666304726986716 104 1436 129 1197 117 591
11398 -10.277678579915944 -1.0849840944350744 8.9921342049341337 57 55 60 1.4254936257542552 109 1699 107 479
11915 1.6545822639013126 4.6388434155519622 -3.182404681515508 184 184 182 1.7227513819863689 65 2509 70 3732
8984 -10.756531794764825 1.8654421753991288 3.7414358739996545 241 241 239 2.4967931501678646 94 1839 104 2195 117 592
8985 -12.4104055355353 3.3786423631328213 -0.46205248465584314 78 76 77 1.4361519748368445 129 2394 117 595 99 2061
16021 -1.2560602749083296 0.83576533874617498 5.7731019813359605 106 105 101 1.1465509372497418 78 2243 75 1513
8986 -12.394843207855688 3.3509130978472199 -0.52571751319216897 114 113 111 1.2585694535508196 104 1303 117 597
8987 -11.430732939161643 2.0378884577508858 3.6924124947039143 81 80 81 0.51725371591565905 104 1231 117 604 94 1374
9354 -5.319380549683359 -2.2496072602583927 12.847760040100718 163 157 143 1.8074070210062516 103 4741 87 1024 96 2614 101 1608 100 1828
8988 -6.4802688800601178 0.39268628319052834 -0.13479222103466221 37 36 42 1.5932172324144591 104 3906 117 605 90 212
9871 -11.823430743110599 -0.61004705241911783 5.9013540007522396 49 49 49 0.24383938692063289 97 676 102 1069 98 621
8990 -6.8691292649813454 0.86655513149350982 0.042287283706378846 106 89 71 2.2708857561695734 129 1666 117 646 90 166 99 517
9865 -15.431074469794272 -1.2272056623992837 7.8622564233706891 18 16 19 0.91080259550578824 97 211 98 525 109 331
8992 -7.9483205269500186 0.27362630132154631 0.81025174113081933 186 162 72 0.43001278289883804 129 811 117 673 98 305
11869 1.0201915664394337 5.2240838998310339 -4.5668510314775563 161 160 158 0.79938600909516622 65 783 76 1414 70 1240
8994 -13.138580656331095 -1.0981838992990449 6.81087952051233 234 231 228 1.3918236505525925 102 479 97 386 105 440 98 429 129 1264
11724 0.052690386025308199 2.33126848256033 -2.8169767901843259 190 141 126 2.2050674712465326 69 560 65 777 76 1033 70 1017
8995 -14.576267199108569 -0.23784390554809473 4.2765235041581882 230 230 230 1.1177838613933635 129 1261 117 689 102 419 98 689 90 288
9298 -12.384251686508568 -3.2111064560387232 18.835673058115599 115 112 104 1.0669127201621325 103 257 87 249 74 292 83 201 86 201 95 198 75 213
10701 -5.1301965494236708 -0.51525271711174936 11.901681355903783 66 66 68 0.4099495039187962 108 285 110 200 128 119
8996 -14.345342358346308 -0.85367910108232303 5.7515026860122944 117 98 56 0.73355898628701999 129 1610 117 698 102 717 97 524 98 423
9815 -11.207847864479209 -1.0988774753855093 7.5037769293803596 90 88 89 1.740970172926626 94 265 98 97
10694 -9.3993527552756966 -2.7065856889545596 16.549254080600377 16 17 22 1.486217613973714 108 217 109 158 110 157 105 151 106 98 114 130 128 102
9664 -17.261034779794119 -5.5457029255657355 18.353725828194264 61 65 64 1.6565311041275919 94 1288 102 1781 97 760 109 1152 110 2388
9809 -15.753245988697691 -1.3524159732130485 8.5700799080305412 0 0 0 0.8381866818440149 94 118 99 505
8999 -7.4603521686927072 -0.09029168915681772 0.23309485978397051 192 169 91 0.7122223664947066 129 1230 117 716 98 283
10689 -4.8858065392315719 -0.59634965164406839 9.3691590816532919 72 70 75 2.1487401065385869 108 273 110 141
11350 -11.737653363897943 -7.2333136381534624 15.8513624810577 44 46 58 1.8790313965201808 110 2401 114 1067 128 2082 108 865 107 516
11867 1.2497660955712691 4.6744931804614449 -2.8294623208155856 95 95 103 0.78491289278716991 65 938 76 1382 70 1354
9000 -15.509899215656478 -1.1237789964417999 5.2799056951861356 61 59 60 1.4514250541176155 129 824 117 717 102 365 97 586 98 510 90 515
9002 -17.237332918199996 -2.3782260471688281 6.0387185912522847 171 169 157 0.88354853523112875 129 1229 117 721 97 806 98 609
14798 -1.5340202724485184 0.28820554664062259 9.0210831915159648 201 172 164 0.51089984777228936 101 3970 122 10826 84 1778 115 2212
9004 -9.1129743075269154 1.8719314886240959 4.4427792245551272 163 159 156 0.74117611772458336 129 1412 117 793 122 10637 103 6614
9823 -13.593739709657687 -0.48241532813438359 5.165284699437799 132 113 71 0.087367416602310871 97 113 98 144
9006 -10.305064157427427 3.3347670272906664 -0.18821355963034647 106 104 105 0.12082708303285997 129 1378 117 800
9672 -11.820520121385389 0.61670479092922659 2.8391673878508987 65 66 60 1.3364360110873843 102 904 97 899 98 778
9817 -13.933901134325078 0.04325374710269201 5.0944047881187924 70 70 72 1.3028309539705436 99 210 98 104 117 135 90 106
9007 -10.589834734353602 3.3931160349981524 -0.38817868670341343 77 76 74 0.12576176549190765 104 1329 129 1371 117 818
16035 0.93252616580226999 1.2206667805496629 1.9203247499258784 75 75 73 1.2720568083983703 101 433 75 624
14802 -0.57580016467117801 0.046220923789432211 9.7974484236392474 94 93 114 0.28214968992019646 101 8249 122 10845 96 6394 115 2608 84 1618 82 1137
9008 -10.421264321968243 2.3143606931439189 2.9515849128887299 96 94 95 1.9154122281026285 99 734 117 836
11949 0.52527128843863613 2.4988591980349066 -1.7946643500287511 33 41 55 1.1273665368210835 76 348 70 309
9010 -10.738206158045704 2.1345920563354577 3.4475740398693548 106 105 103 0.10284180017818725 129 1360 117 861
11740 0.20525424812643539 2.6495222752621563 -2.116028399696273 138 140 130 2.1810792764661611 69 1619 65 1125 70 1523
9011 -9.5252833292674541 1.7127568541852036 4.9259581770093028 184 182 183 0.92780872120184099 129 2185 117 863 122 10552 103 11299
9378 -4.4522296363762681 0.3974226510496775 4.5155236705634909 150 147 139 1.045369852701332 94 1539 87 1688
10717 -8.2664083451394959 -1.0610550639687877 13.362563356267609 171 170 166 0.45822770672482466 109 613 110 244 114 184 106 137 128 178
9012 -9.4255391567728264 1.6122988257534849 5.1990235896713859 155 154 151 0.86373407626124388 99 1143 129 6054 117 864 122 9579 103 6708
9895 -15.150091113743695 -0.56261338570301445 4.772438165590108 113 109 109 0.77092737789984589 99 1487 98 1006 129 1607
10710 -7.9340818513270861 -1.7033499179073304 10.838975678776546 190 186 183 1.5962232537552843 109 453 110 224 105 592 106 128 114 102 128 226
9013 -9.4975039427753689 1.7583820656118394 4.7321419397764997 174 172 175 0.52780216633949528 99 1808 129 3518 117 866
9687 -19.303607029603846 -3.0912570136865334 9.3888388264703586 50 51 81 1.6239874967709422 99 3110 129 5101 97 1319 98 1291
9014 -10.693217476952068 3.3357906836197899 -0.22243591062444715 105 105 103 0.023233218521901338 129 2253 117 869
9680 -14.006228441586913 0.54015341735631373 5.497685327890288 52 54 53 1.4651749250068065 102 1188 97 1039 105 1291
9889 -11.92534439092606 -0.98634693482343605 7.847025031830051 49 47 48 0.018683502427583501 105 1319 98 877
9015 -9.2430120679380732 2.1262073276339324 3.5893461088858514 91 89 93 0.99278451944250856 129 2157 117 911 104 1178
10705 -6.1690632664529552 -1.2259315254541763 12.312473752808849 200 197 189 0.76847341164311844 108 302 110 215 114 183 128 181
11947 1.7286409341998259 4.8007933668508374 -3.0701763071702644 118 117 122 0.080259588041073582 65 212 70 268
9016 -8.8123367739049367 1.5340607471563172 5.4923044893492499 214 211 206 0.97344807684966284 99 950 129 2119 117 913
10714 -13.835859527867596 -4.9629493621773406 15.614346761901526 136 139 148 0.64430436942453984 108 419 110 235 106 189
16053 -1.2046223638226659 -1.6997237945082218 9.3390708939448821 217 217 217 1.983010856534128 101 33 100 24 79 40 77 30 84 27 82 25
9018 -13.773151348427133 -0.39017729337493151 5.0619255120877789 53 51 52 0.8423140197095127 129 1627 117 944 102 1248
9019 -14.057718408280127 -0.36029866549492351 5.3472179263790665 143 130 95 0.94081034702354527 104 919 129 1272 117 959 102 496 97 500
9386 -5.7979280032888036 -2.1253564561114859 13.765550390636935 126 120 106 1.9009129865994399 103 10435 87 1995
9020 -8.6436124299831256 2.0275321606695527 3.8070782710506892 99 99 99 1.7739925134197307 129 2097 117 973 122 2230 91 1205
9903 -14.45294523766343 -0.65861563471197204 5.9489829734500388 118 101 85 1.3092119055154317 99 827 105 1046 98 1100 117 686 90 625
9022 -7.9835137526109792 1.5306143229600153 4.9597598352875076 229 228 224 1.1835682987003422 104 1971 129 2055 117 988
9688 -18.677305845045545 -2.9507608147434663 9.110341245509268 73 73 99 2.1845512616513076 104 3193 97 1323
9897 -8.3797556450675295 -0.28077468292466362 3.2618257348646917 42 41 49 0.20334588828805727 117 2476 98 1036
15534 -2.1286947255100781 0.82298410409454148 8.4525013472747403 158 156 157 1.7429986674576821 101 10736 96 3034 115 4455
14809 -2.3623911662296599 0.47626863218545684 9.4202262569829873 138 134 131 0.54637534082599759 101 9457 122 10875 103 7283
9023 -8.7983765074573643 2.3208543706980147 3.1358043616296114 171 171 173 1.8582194442051996 129 3702 117 990 104 812
9458 -6.1418113669650909 0.27136529737658482 4.7513214650508404 116 117 111 1.3801462151419799 88 2388 48 3405 92 2528 95 2765 91 3565 122 4959
9028 -18.171986976765737 -3.4079405150381645 10.487010378639562 46 46 48 1.3262867533033194 129 1571 117 1052 98 477 109 815
9975 -21.749855809575415 -2.9554983640817505 7.0231761213600405 60 60 60 0.79390239446008826 102 384 90 500
9030 -13.640855838871433 -0.54249244125716933 3.2702716334476576 212 212 212 1.9265762959451205 129 1242 117 1064 98 396 90 1088
9969 -14.588165291032345 1.4176123697324894 -2.257853998790273 118 111 101 2.2583402286049528 90 377 129 5158 117 2407
12027 0.5670601422349183 2.5222122923872834 -2.540247437373274 213 214 214 1.6299509330812973 76 737 70 1334 59 193 76 367
9032 -15.043439577655098 -0.76830693193170474 4.9565970316400394 98 103 99 1.894179266673601 129 1253 117 1071 97 530 98 663 90 518 105 314
9033 -14.858756387312742 -0.72309935006582071 4.9617179467358214 191 108 112 1.0827307220198072 104 1264 129 1255 117 1076 102 807 97 612 98 666
9035 -14.909589487882101 -0.64837564490748734 4.8808063320139858 221 213 210 0.259637054350563 99 1410 129 1257 117 1079 102 716 97 525 105 777 98 518
9466 -7.7351706574946331 2.8147079855730182 1.4812661982239868 116 100 75 3.0088716358633887 88 4562 48 3964
9036 -14.637492578943231 -0.76112204561628016 5.1917265014133767 240 235 78 1.6637972746683021 102 143 97 167 105 216 129 371
9983 -8.3077696599086224 -0.3540441063237888 3.205637806612593 63 64 68 0.1191785840124811 105 976 90 748
9038 -14.048615128056785 -0.7513284522333542 5.6393113891022768 79 58 15 0.4353895205722802 129 1118 117 1086
9977 -7.5190709807201657 -0.26556123810396004 0.56459040384246673 184 162 76 0.6626843195348292 117 1054 90 506
11981 -0.36789920563582734 2.9040991354895298 -3.1682021705134833 49 50 43 1.163944348826099 76 374 70 661 59 246 58 128
9042 -6.6969254368766897 0.73722452630890034 0.022507912177940632 188 165 71 1.7177687888238096 129 2411 117 1142 90 408
9251 -7.9743573979156528 1.0054614290434132 3.3751025606611504 148 148 150 0.49243328881260173 99 1074 117 6376
9043 -7.9790659366775527 0.85565888327098938 2.8653841681825951 159 158 156 1.6773388793365764 129 3117 117 1172 104 3106
9410 -6.4131677895885471 0.28977565052418508 4.3990780423525226 235 234 231 0.96625758731158629 88 165 74 304 91 137 81 211 103 173 83 218 48 261 50 236 95 122 78 161
9046 -11.057151536755514 2.0206836296184489 3.8051115776940674 167 166 162 1.2483104066473343 99 2104 129 2299 117 1210 104 1451
9921 -13.393362974201251 0.46403744514154704 5.1866032847828167 56 55 61 0.57729249915531367 102 2037 98 1847
11303 -11.37914125349498 -6.8456222738335368 15.133800502391059 160 162 174 1.9942481073579661 105 1186 109 1057 128 1308
9047 -11.012091193639851 2.1290267799462796 3.5111540231030962 98 97 95 0.87258668566322251 99 1096 104 1455 129 2291 117 1219 94 1210
9764 -14.356512909213295 -0.63515800378593634 5.6341811801916197 117 102 51 1.9680499333218258 97 633 102 738 105 846
11462 0.010740114983125356 -1.9677046157829359 9.2972280894184589 229 228 226 1.1955146490307773 101 470 86 350 96 470 100 166 115 141 89 239 79 471 77 359 84 207 82 131
16085 0.049138212804165492 0.11259473346346589 9.1240356845524868 237 237 235 1.2011268687111123 96 745 101 365 100 174 115 175 89 145 79 286 77 179 84 149 82 145
9050 -10.959987069269467 3.3458275491611622 -0.16389942472049562 81 80 76 0.98116577805437477 129 3345 117 1285
9259 -10.419846558840508 3.403844389305656 -0.60959990826555133 113 112 110 2.1283707002282504 104 6219 129 8052 117 7037
9418 -8.5187759068921025 2.3012961923988704 3.7250958106523266 110 108 111 0.82274845008953235 94 3904 87 2236
9054 -19.923505811719927 -2.3827899147913012 8.4786398163946615 206 205 200 0.82338060775757738 129 6921 117 1313
9929 -11.958871822916619 -1.3111289652581082 7.5072224317982101 11 9 20 1.986254969234805 97 44 102 79 105 92 98 66 109 102
15566 -1.3792404964658078 1.9711541190465278 5.1303307824346289 168 167 163 0.23005449934081845 91 6121 96 3501
9055 -18.865421501819363 -2.5168423079075191 9.7187147775932736 61 61 61 1.4619460201411161 129 1589 117 1321 102 695 97 831 98 496
9772 -12.531017654259456 -0.54668615150917022 5.4710074871532806 107 105 106 1.0564443517963702 97 948 102 846 105 1065 98 929
9056 -15.371343438442741 -1.2580742255837809 5.4460017243612038 163 164 159 1.7205184621105916 129 1585 117 1327 102 1024 99 1399 97 842 98 1159
11933 -0.19219462661724085 4.9725842656376882 -4.6630566566657512 214 216 211 1.0599185589561417 65 104 76 135 70 119 59 144
9058 -13.77746637662311 -0.32136664011061228 3.4667508896763177 211 212 207 1.0094201492026618 129 2972 117 1340 102 823
9059 -14.074390375629564 -0.65068874159450307 4.9714693323948316 177 171 155 1.80453166083715 129 1950 117 1344 98 708
9362 -6.9844311618041841 1.9250759530253279 4.1991029680707737 148 144 143 0.96103203990827035 104 1653 87 1320
